   7.8836591e+05  -1.5774867e+05  -2.9400000e+00
   7.8836814e+05  -1.5774867e+05  -2.8400000e+00
   7.8837037e+05  -1.5774867e+05  -2.8400000e+00
   7.8837259e+05  -1.5774757e+05  -2.8400000e+00
   7.8837593e+05  -1.5774757e+05  -2.8400000e+00
   7.8837705e+05  -1.5774757e+05  -2.8400000e+00
   7.8838596e+05  -1.5774648e+05  -2.9400000e+00
   7.8838818e+05  -1.5774648e+05  -3.4400000e+00
   7.8839041e+05  -1.5774648e+05  -3.4400000e+00
   7.8839264e+05  -1.5774648e+05  -3.0400000e+00
   7.8839487e+05  -1.5774538e+05  -2.8400000e+00
   7.8839821e+05  -1.5774538e+05  -3.0400000e+00
   7.8840043e+05  -1.5774539e+05  -3.0400000e+00
   7.8840266e+05  -1.5774539e+05  -2.9400000e+00
   7.8840600e+05  -1.5774429e+05  -3.2400000e+00
   7.8840823e+05  -1.5774429e+05  -3.2400000e+00
   7.8841046e+05  -1.5774429e+05  -3.2400000e+00
   7.8841269e+05  -1.5774319e+05  -2.9400000e+00
   7.8841491e+05  -1.5774319e+05  -3.0400000e+00
   7.8841714e+05  -1.5774319e+05  -3.2400000e+00
   7.8841937e+05  -1.5774319e+05  -3.4400000e+00
   7.8842160e+05  -1.5774209e+05  -3.0400000e+00
   7.8842382e+05  -1.5774209e+05  -3.3400000e+00
   7.8842605e+05  -1.5774210e+05  -2.9400000e+00
   7.8842828e+05  -1.5774099e+05  -3.0400000e+00
   7.8843051e+05  -1.5774099e+05  -3.0400000e+00
   7.8843273e+05  -1.5774100e+05  -3.5400000e+00
   7.8843496e+05  -1.5773989e+05  -3.3400000e+00
   7.8843719e+05  -1.5773990e+05  -2.9400000e+00
   7.8843942e+05  -1.5773990e+05  -3.1400000e+00
   7.8844164e+05  -1.5773990e+05  -3.1400000e+00
   7.8844387e+05  -1.5773880e+05  -3.4400000e+00
   7.8844610e+05  -1.5773880e+05  -3.2400000e+00
   7.8844832e+05  -1.5773880e+05  -3.1400000e+00
   7.8845167e+05  -1.5773880e+05  -2.9400000e+00
   7.8845389e+05  -1.5773770e+05  -3.2400000e+00
   7.8845612e+05  -1.5773770e+05  -2.9400000e+00
   7.8845835e+05  -1.5773771e+05  -2.8400000e+00
   7.8846058e+05  -1.5773771e+05  -2.8400000e+00
   7.8846280e+05  -1.5773660e+05  -2.7400000e+00
   7.8846614e+05  -1.5773661e+05  -3.1400000e+00
   7.8846726e+05  -1.5773661e+05  -3.1400000e+00
   7.8846949e+05  -1.5773551e+05  -2.8400000e+00
   7.8847283e+05  -1.5773551e+05  -3.3400000e+00
   7.8847505e+05  -1.5773551e+05  -3.2400000e+00
   7.8847728e+05  -1.5773441e+05  -2.8400000e+00
   7.8848062e+05  -1.5773441e+05  -2.9400000e+00
   7.8848285e+05  -1.5773441e+05  -2.9400000e+00
   7.8848508e+05  -1.5773442e+05  -3.1400000e+00
   7.8848731e+05  -1.5773331e+05  -2.8400000e+00
   7.8849065e+05  -1.5773332e+05  -2.9400000e+00
   7.8849287e+05  -1.5773221e+05  -3.1400000e+00
   7.8849510e+05  -1.5773222e+05  -2.9400000e+00
   7.8849733e+05  -1.5773111e+05  -2.9400000e+00
   7.8849956e+05  -1.5773111e+05  -3.1400000e+00
   7.8850178e+05  -1.5773112e+05  -2.9400000e+00
   7.8850401e+05  -1.5773001e+05  -3.2400000e+00
   7.8850624e+05  -1.5773001e+05  -2.8400000e+00
   7.8850958e+05  -1.5772891e+05  -2.8400000e+00
   7.8851181e+05  -1.5772891e+05  -2.9400000e+00
   7.8851404e+05  -1.5772892e+05  -3.0400000e+00
   7.8851626e+05  -1.5772781e+05  -2.9400000e+00
   7.8851849e+05  -1.5772782e+05  -3.2400000e+00
   7.8852072e+05  -1.5772782e+05  -3.1400000e+00
   7.8852295e+05  -1.5772671e+05  -2.9400000e+00
   7.8852629e+05  -1.5772672e+05  -2.8400000e+00
   7.8852851e+05  -1.5772672e+05  -2.8400000e+00
   7.8853074e+05  -1.5772672e+05  -3.0400000e+00
   7.8853297e+05  -1.5772562e+05  -2.9400000e+00
   7.8853520e+05  -1.5772562e+05  -2.9400000e+00
   7.8853742e+05  -1.5772562e+05  -2.9400000e+00
   7.8853965e+05  -1.5772563e+05  -2.9400000e+00
   7.8854299e+05  -1.5772452e+05  -2.8400000e+00
   7.8854522e+05  -1.5772453e+05  -2.8400000e+00
   7.8854745e+05  -1.5772453e+05  -2.9400000e+00
   7.8854967e+05  -1.5772453e+05  -2.9400000e+00
   7.8855302e+05  -1.5772343e+05  -2.8400000e+00
   7.8855524e+05  -1.5772343e+05  -2.8400000e+00
   7.8855747e+05  -1.5772233e+05  -2.7400000e+00
   7.8855970e+05  -1.5772233e+05  -2.8400000e+00
   7.8856193e+05  -1.5772123e+05  -2.8400000e+00
   7.8856415e+05  -1.5772123e+05  -2.8400000e+00
   7.8856638e+05  -1.5772012e+05  -2.8400000e+00
   7.8856861e+05  -1.5772013e+05  -3.2400000e+00
   7.8857084e+05  -1.5771902e+05  -3.1400000e+00
   7.8857307e+05  -1.5771792e+05  -3.0400000e+00
   7.8857529e+05  -1.5771792e+05  -2.8400000e+00
   7.8857752e+05  -1.5771682e+05  -3.0400000e+00
   7.8858086e+05  -1.5771682e+05  -2.9400000e+00
   7.8858309e+05  -1.5771572e+05  -2.9400000e+00
   7.8858420e+05  -1.5771572e+05  -2.9400000e+00
   7.8858755e+05  -1.5771462e+05  -2.9400000e+00
   7.8858977e+05  -1.5771462e+05  -2.9400000e+00
   7.8859200e+05  -1.5771462e+05  -3.2400000e+00
   7.8859423e+05  -1.5771462e+05  -3.0400000e+00
   7.8859757e+05  -1.5771463e+05  -2.9400000e+00
   7.8859980e+05  -1.5771352e+05  -2.9400000e+00
   7.8860202e+05  -1.5771353e+05  -2.9400000e+00
   7.8860425e+05  -1.5771353e+05  -2.9400000e+00
   7.8860648e+05  -1.5771353e+05  -2.9400000e+00
   7.8860871e+05  -1.5771243e+05  -3.2400000e+00
   7.8861093e+05  -1.5771243e+05  -3.0400000e+00
   7.8861316e+05  -1.5771243e+05  -2.8400000e+00
   7.8861539e+05  -1.5771133e+05  -2.8400000e+00
   7.8861762e+05  -1.5771133e+05  -2.8400000e+00
   7.8861984e+05  -1.5771133e+05  -2.9400000e+00
   7.8862319e+05  -1.5771023e+05  -2.8400000e+00
   7.8862541e+05  -1.5771023e+05  -2.9400000e+00
   7.8862764e+05  -1.5770913e+05  -2.7400000e+00
   7.8862987e+05  -1.5770913e+05  -3.1400000e+00
   7.8863210e+05  -1.5770803e+05  -2.7400000e+00
   7.8863432e+05  -1.5770803e+05  -2.6400000e+00
   7.8863767e+05  -1.5770693e+05  -2.7400000e+00
   7.8863989e+05  -1.5770693e+05  -2.6400000e+00
   7.8864212e+05  -1.5770583e+05  -2.9400000e+00
   7.8864435e+05  -1.5770583e+05  -2.8400000e+00
   7.8864769e+05  -1.5770473e+05  -2.6400000e+00
   7.8864992e+05  -1.5770473e+05  -2.6400000e+00
   7.8865215e+05  -1.5770362e+05  -2.5400000e+00
   7.8865437e+05  -1.5770363e+05  -2.7400000e+00
   7.8865660e+05  -1.5770252e+05  -2.5400000e+00
   7.8865883e+05  -1.5770142e+05  -2.6400000e+00
   7.8866106e+05  -1.5770142e+05  -2.6400000e+00
   7.8866328e+05  -1.5770032e+05  -2.8400000e+00
   7.8866551e+05  -1.5770032e+05  -2.8400000e+00
   7.8866774e+05  -1.5770032e+05  -2.6400000e+00
   7.8866885e+05  -1.5770032e+05  -2.7400000e+00
   7.8867108e+05  -1.5770033e+05  -2.6400000e+00
   7.8867331e+05  -1.5770144e+05  -2.5400000e+00
   7.8867442e+05  -1.5770144e+05  -2.6400000e+00
   7.8867664e+05  -1.5770365e+05  -2.6400000e+00
   7.8867664e+05  -1.5770476e+05  -2.7400000e+00
   7.8867775e+05  -1.5770587e+05  -2.7400000e+00
   7.8867775e+05  -1.5770808e+05  -2.5400000e+00
   7.8867775e+05  -1.5771029e+05  -2.7400000e+00
   7.8867663e+05  -1.5771250e+05  -2.6400000e+00
   7.8867663e+05  -1.5771582e+05  -2.7400000e+00
   7.8867663e+05  -1.5771804e+05  -2.7400000e+00
   7.8867663e+05  -1.5771914e+05  -2.8400000e+00
   7.8867662e+05  -1.5772246e+05  -2.5400000e+00
   7.8867773e+05  -1.5772468e+05  -2.5400000e+00
   7.8867773e+05  -1.5772689e+05  -2.6400000e+00
   7.8867884e+05  -1.5772910e+05  -2.9400000e+00
   7.8867884e+05  -1.5773132e+05  -2.5400000e+00
   7.8867995e+05  -1.5773353e+05  -2.6400000e+00
   7.8868106e+05  -1.5773464e+05  -2.9400000e+00
   7.8868217e+05  -1.5773685e+05  -2.8400000e+00
   7.8868328e+05  -1.5773907e+05  -2.7400000e+00
   7.8868440e+05  -1.5774128e+05  -2.7400000e+00
   7.8868439e+05  -1.5774349e+05  -2.7400000e+00
   7.8868550e+05  -1.5774571e+05  -2.6400000e+00
   7.8868550e+05  -1.5774792e+05  -2.6400000e+00
   7.8868550e+05  -1.5775013e+05  -2.7400000e+00
   7.8868550e+05  -1.5775235e+05  -2.7400000e+00
   7.8868549e+05  -1.5775456e+05  -2.7400000e+00
   7.8868438e+05  -1.5775677e+05  -2.6400000e+00
   7.8868326e+05  -1.5775898e+05  -2.7400000e+00
   7.8868215e+05  -1.5776009e+05  -2.7400000e+00
   7.8867992e+05  -1.5776230e+05  -2.6400000e+00
   7.8867880e+05  -1.5776340e+05  -2.6400000e+00
   7.8867769e+05  -1.5776340e+05  -2.7400000e+00
   7.8867546e+05  -1.5776340e+05  -3.0400000e+00
   7.8867324e+05  -1.5776340e+05  -2.7400000e+00
   7.8866989e+05  -1.5776339e+05  -2.7400000e+00
   7.8866767e+05  -1.5776339e+05  -2.7400000e+00
   7.8866544e+05  -1.5776228e+05  -2.7400000e+00
   7.8866321e+05  -1.5776228e+05  -2.7400000e+00
   7.8866099e+05  -1.5776228e+05  -2.7400000e+00
   7.8865876e+05  -1.5776227e+05  -2.7400000e+00
   7.8865653e+05  -1.5776227e+05  -2.7400000e+00
   7.8865430e+05  -1.5776338e+05  -2.7400000e+00
   7.8865208e+05  -1.5776337e+05  -2.7400000e+00
   7.8864874e+05  -1.5776337e+05  -2.8400000e+00
   7.8864651e+05  -1.5776447e+05  -2.7400000e+00
   7.8864428e+05  -1.5776558e+05  -2.7400000e+00
   7.8864205e+05  -1.5776557e+05  -2.7400000e+00
   7.8863983e+05  -1.5776668e+05  -2.8400000e+00
   7.8863760e+05  -1.5776668e+05  -2.7400000e+00
   7.8863537e+05  -1.5776778e+05  -2.9400000e+00
   7.8863314e+05  -1.5776888e+05  -2.7400000e+00
   7.8863091e+05  -1.5776888e+05  -2.7400000e+00
   7.8862757e+05  -1.5776998e+05  -2.7400000e+00
   7.8862534e+05  -1.5777109e+05  -2.7400000e+00
   7.8862423e+05  -1.5777109e+05  -2.7400000e+00
   7.8862089e+05  -1.5777219e+05  -2.7400000e+00
   7.8861866e+05  -1.5777219e+05  -2.9400000e+00
   7.8861643e+05  -1.5777329e+05  -3.0400000e+00
   7.8861421e+05  -1.5777329e+05  -2.8400000e+00
   7.8861198e+05  -1.5777329e+05  -2.7400000e+00
   7.8860864e+05  -1.5777328e+05  -2.7400000e+00
   7.8860641e+05  -1.5777439e+05  -3.0400000e+00
   7.8860418e+05  -1.5777438e+05  -3.1400000e+00
   7.8860196e+05  -1.5777438e+05  -2.9400000e+00
   7.8859973e+05  -1.5777548e+05  -2.9400000e+00
   7.8859639e+05  -1.5777548e+05  -2.9400000e+00
   7.8859416e+05  -1.5777548e+05  -2.9400000e+00
   7.8859193e+05  -1.5777548e+05  -2.7400000e+00
   7.8858970e+05  -1.5777658e+05  -2.8400000e+00
   7.8858748e+05  -1.5777658e+05  -2.7400000e+00
   7.8858525e+05  -1.5777768e+05  -2.7400000e+00
   7.8858191e+05  -1.5777768e+05  -2.8400000e+00
   7.8857968e+05  -1.5777878e+05  -3.1400000e+00
   7.8857745e+05  -1.5777989e+05  -2.9400000e+00
   7.8857522e+05  -1.5777988e+05  -2.8400000e+00
   7.8857300e+05  -1.5778099e+05  -2.9400000e+00
   7.8857077e+05  -1.5778209e+05  -2.7400000e+00
   7.8856854e+05  -1.5778319e+05  -2.8400000e+00
   7.8856631e+05  -1.5778430e+05  -2.9400000e+00
   7.8856408e+05  -1.5778540e+05  -2.9400000e+00
   7.8856185e+05  -1.5778651e+05  -2.7400000e+00
   7.8855963e+05  -1.5778761e+05  -2.7400000e+00
   7.8855740e+05  -1.5778871e+05  -2.9400000e+00
   7.8855517e+05  -1.5778982e+05  -2.6400000e+00
   7.8855294e+05  -1.5779092e+05  -2.7400000e+00
   7.8855071e+05  -1.5779092e+05  -2.6400000e+00
   7.8854848e+05  -1.5779202e+05  -2.8400000e+00
   7.8854626e+05  -1.5779313e+05  -2.7400000e+00
   7.8854403e+05  -1.5779423e+05  -2.7400000e+00
   7.8854180e+05  -1.5779534e+05  -2.6400000e+00
   7.8853957e+05  -1.5779644e+05  -2.8400000e+00
   7.8853734e+05  -1.5779644e+05  -2.8400000e+00
   7.8853400e+05  -1.5779754e+05  -2.9400000e+00
   7.8853178e+05  -1.5779754e+05  -2.7400000e+00
   7.8852955e+05  -1.5779864e+05  -2.9400000e+00
   7.8852732e+05  -1.5779864e+05  -2.8400000e+00
   7.8852509e+05  -1.5779974e+05  -2.8400000e+00
   7.8852286e+05  -1.5779974e+05  -2.8400000e+00
   7.8851952e+05  -1.5779974e+05  -3.0400000e+00
   7.8851730e+05  -1.5780084e+05  -2.8400000e+00
   7.8851507e+05  -1.5780084e+05  -2.9400000e+00
   7.8851284e+05  -1.5780194e+05  -2.7400000e+00
   7.8851061e+05  -1.5780194e+05  -3.0400000e+00
   7.8850839e+05  -1.5780194e+05  -2.6400000e+00
   7.8850616e+05  -1.5780193e+05  -2.7400000e+00
   7.8850393e+05  -1.5780304e+05  -2.9400000e+00
   7.8850170e+05  -1.5780304e+05  -2.7400000e+00
   7.8849948e+05  -1.5780303e+05  -2.8400000e+00
   7.8849725e+05  -1.5780303e+05  -3.1400000e+00
   7.8849391e+05  -1.5780413e+05  -2.8400000e+00
   7.8849168e+05  -1.5780413e+05  -3.0400000e+00
   7.8848945e+05  -1.5780413e+05  -2.7400000e+00
   7.8848722e+05  -1.5780523e+05  -2.8400000e+00
   7.8848500e+05  -1.5780523e+05  -2.9400000e+00
   7.8848277e+05  -1.5780523e+05  -3.0400000e+00
   7.8848054e+05  -1.5780633e+05  -3.1400000e+00
   7.8847720e+05  -1.5780633e+05  -3.0400000e+00
   7.8847497e+05  -1.5780743e+05  -2.7400000e+00
   7.8847275e+05  -1.5780743e+05  -2.8400000e+00
   7.8847052e+05  -1.5780853e+05  -2.7400000e+00
   7.8846829e+05  -1.5780853e+05  -2.8400000e+00
   7.8846606e+05  -1.5780963e+05  -2.7400000e+00
   7.8846272e+05  -1.5780963e+05  -2.8400000e+00
   7.8846161e+05  -1.5781074e+05  -3.0400000e+00
   7.8845938e+05  -1.5781184e+05  -3.1400000e+00
   7.8845604e+05  -1.5781184e+05  -3.0400000e+00
   7.8845381e+05  -1.5781294e+05  -2.8400000e+00
   7.8845158e+05  -1.5781404e+05  -3.1400000e+00
   7.8844935e+05  -1.5781515e+05  -3.3400000e+00
   7.8844713e+05  -1.5781514e+05  -3.0400000e+00
   7.8844490e+05  -1.5781625e+05  -2.8400000e+00
   7.8844267e+05  -1.5781735e+05  -2.8400000e+00
   7.8844044e+05  -1.5781735e+05  -2.8400000e+00
   7.8843710e+05  -1.5781845e+05  -3.1400000e+00
   7.8843487e+05  -1.5781845e+05  -2.9400000e+00
   7.8843264e+05  -1.5781955e+05  -2.9400000e+00
   7.8843042e+05  -1.5781955e+05  -2.8400000e+00
   7.8842819e+05  -1.5781955e+05  -3.1400000e+00
   7.8842596e+05  -1.5782065e+05  -2.9400000e+00
   7.8842373e+05  -1.5782065e+05  -2.8400000e+00
   7.8842039e+05  -1.5782065e+05  -3.1400000e+00
   7.8841817e+05  -1.5782064e+05  -2.9400000e+00
   7.8841594e+05  -1.5782064e+05  -2.8400000e+00
   7.8841371e+05  -1.5782175e+05  -3.2400000e+00
   7.8841037e+05  -1.5782174e+05  -2.8400000e+00
   7.8840814e+05  -1.5782285e+05  -2.8400000e+00
   7.8840592e+05  -1.5782284e+05  -2.8400000e+00
   7.8840369e+05  -1.5782395e+05  -2.6400000e+00
   7.8840257e+05  -1.5782616e+05  -2.7400000e+00
   7.8840034e+05  -1.5782726e+05  -2.6400000e+00
   7.8839923e+05  -1.5782837e+05  -2.7400000e+00
   7.8839811e+05  -1.5783058e+05  -2.6400000e+00
   7.8839700e+05  -1.5783279e+05  -2.6400000e+00
   7.8839699e+05  -1.5783500e+05  -2.5400000e+00
   7.8839699e+05  -1.5783611e+05  -2.5400000e+00
   7.8839699e+05  -1.5783832e+05  -2.6400000e+00
   7.8839810e+05  -1.5784054e+05  -2.6400000e+00
   7.8839921e+05  -1.5784165e+05  -2.7400000e+00
   7.8840144e+05  -1.5784275e+05  -2.6400000e+00
   7.8840255e+05  -1.5784386e+05  -2.5400000e+00
   7.8840478e+05  -1.5784497e+05  -2.5400000e+00
   7.8840812e+05  -1.5784497e+05  -2.6400000e+00
   7.8841034e+05  -1.5784608e+05  -2.6400000e+00
   7.8841257e+05  -1.5784719e+05  -2.6400000e+00
   7.8841480e+05  -1.5784720e+05  -2.6400000e+00
   7.8841702e+05  -1.5784830e+05  -2.6400000e+00
   7.8843372e+05  -1.5785164e+05  -2.6400000e+00
   7.8843595e+05  -1.5785164e+05  -2.9400000e+00
   7.8843929e+05  -1.5785165e+05  -2.7400000e+00
   7.8844152e+05  -1.5785276e+05  -3.0400000e+00
   7.8844374e+05  -1.5785276e+05  -2.8400000e+00
   7.8844597e+05  -1.5785276e+05  -2.8400000e+00
   7.8844820e+05  -1.5785277e+05  -2.9400000e+00
   7.8845042e+05  -1.5785387e+05  -2.8400000e+00
   7.8845265e+05  -1.5785388e+05  -2.7400000e+00
   7.8845599e+05  -1.5785499e+05  -2.8400000e+00
   7.8845710e+05  -1.5785499e+05  -2.9400000e+00
   7.8845933e+05  -1.5785610e+05  -2.5400000e+00
   7.8846267e+05  -1.5785610e+05  -2.5400000e+00
   7.8846490e+05  -1.5785610e+05  -2.4400000e+00
   7.8846712e+05  -1.5785611e+05  -2.4400000e+00
   7.8846935e+05  -1.5785500e+05  -2.3400000e+00
   7.8847158e+05  -1.5785500e+05  -2.3400000e+00
   7.8847492e+05  -1.5785501e+05  -2.2400000e+00
   7.8847715e+05  -1.5785390e+05  -2.1400000e+00
   7.8847937e+05  -1.5785391e+05  -2.1400000e+00
   7.8848160e+05  -1.5785280e+05  -2.0400000e+00
   7.8848383e+05  -1.5785281e+05  -1.8400000e+00
   7.8848606e+05  -1.5785281e+05  -1.8400000e+00
   7.8848829e+05  -1.5785170e+05  -1.6400000e+00
   7.8849051e+05  -1.5785171e+05  -1.6400000e+00
   7.8849274e+05  -1.5785171e+05  -1.6400000e+00
   7.8849497e+05  -1.5785060e+05  -1.6400000e+00
   7.8849720e+05  -1.5785061e+05  -1.5400000e+00
   7.8849942e+05  -1.5785061e+05  -1.6400000e+00
   7.8850165e+05  -1.5784951e+05  -1.4400000e+00
   7.8850388e+05  -1.5784951e+05  -1.4400000e+00
   7.8850611e+05  -1.5784840e+05  -1.4400000e+00
   7.8850833e+05  -1.5784841e+05  -1.3400000e+00
   7.8851168e+05  -1.5784730e+05  -1.3400000e+00
   7.8851390e+05  -1.5784731e+05  -1.3400000e+00
   7.8851613e+05  -1.5784731e+05  -1.3400000e+00
   7.8851836e+05  -1.5784621e+05  -1.2400000e+00
   7.8852058e+05  -1.5784621e+05  -1.2400000e+00
   7.8852281e+05  -1.5784621e+05  -1.2400000e+00
   7.8852504e+05  -1.5784511e+05  -1.2400000e+00
   7.8852727e+05  -1.5784511e+05  -1.2400000e+00
   7.8852949e+05  -1.5784511e+05  -1.2400000e+00
   7.8853172e+05  -1.5784401e+05  -1.2400000e+00
   7.8853395e+05  -1.5784401e+05  -1.2400000e+00
   7.8853618e+05  -1.5784291e+05  -1.2400000e+00
   7.8853841e+05  -1.5784180e+05  -1.3400000e+00
   7.8853952e+05  -1.5784070e+05  -1.4400000e+00
   7.8854175e+05  -1.5783959e+05  -1.5400000e+00
   7.8854287e+05  -1.5783738e+05  -1.4400000e+00
   7.8854509e+05  -1.5783628e+05  -1.5400000e+00
   7.8854621e+05  -1.5783407e+05  -1.5400000e+00
   7.8854844e+05  -1.5783296e+05  -1.6400000e+00
   7.8854955e+05  -1.5783075e+05  -1.8400000e+00
   7.8855178e+05  -1.5782854e+05  -1.8400000e+00
   7.8855290e+05  -1.5782743e+05  -1.9400000e+00
   7.8855513e+05  -1.5782633e+05  -2.1400000e+00
   7.8855736e+05  -1.5782412e+05  -2.0400000e+00
   7.8855847e+05  -1.5782302e+05  -2.1400000e+00
   7.8856070e+05  -1.5782191e+05  -2.1400000e+00
   7.8856293e+05  -1.5782191e+05  -2.0400000e+00
   7.8856515e+05  -1.5782192e+05  -2.1400000e+00
   7.8856738e+05  -1.5782192e+05  -2.0400000e+00
   7.8857072e+05  -1.5782303e+05  -2.1400000e+00
   7.8857295e+05  -1.5782303e+05  -2.0400000e+00
   7.8857518e+05  -1.5782303e+05  -2.1400000e+00
   7.8857740e+05  -1.5782414e+05  -2.0400000e+00
   7.8857963e+05  -1.5782415e+05  -2.0400000e+00
   7.8858185e+05  -1.5782525e+05  -2.0400000e+00
   7.8858408e+05  -1.5782636e+05  -2.1400000e+00
   7.8858631e+05  -1.5782637e+05  -2.0400000e+00
   7.8858853e+05  -1.5782747e+05  -2.0400000e+00
   7.8859076e+05  -1.5782858e+05  -2.0400000e+00
   7.8859187e+05  -1.5782969e+05  -2.1400000e+00
   7.8859410e+05  -1.5783080e+05  -2.2400000e+00
   7.8859632e+05  -1.5783191e+05  -2.3400000e+00
   7.8859855e+05  -1.5783302e+05  -2.3400000e+00
   7.8860077e+05  -1.5783413e+05  -2.4400000e+00
   7.8860189e+05  -1.5783524e+05  -2.5400000e+00
   7.8860411e+05  -1.5783634e+05  -2.5400000e+00
   7.8860634e+05  -1.5783856e+05  -2.5400000e+00
   7.8860856e+05  -1.5783967e+05  -2.5400000e+00
   7.8861079e+05  -1.5784078e+05  -2.5400000e+00
   7.8861301e+05  -1.5784189e+05  -2.5400000e+00
   7.8861524e+05  -1.5784300e+05  -2.5400000e+00
   7.8861635e+05  -1.5784410e+05  -2.5400000e+00
   7.8861858e+05  -1.5784632e+05  -2.5400000e+00
   7.8861969e+05  -1.5784853e+05  -2.7400000e+00
   7.8862191e+05  -1.5784964e+05  -2.6400000e+00
   7.8862303e+05  -1.5785186e+05  -2.6400000e+00
   7.8862525e+05  -1.5785407e+05  -2.6400000e+00
   7.8862636e+05  -1.5785518e+05  -2.6400000e+00
   7.8862747e+05  -1.5785739e+05  -2.6400000e+00
   7.8862970e+05  -1.5785961e+05  -2.6400000e+00
   7.8863081e+05  -1.5786072e+05  -2.6400000e+00
   7.8863192e+05  -1.5786293e+05  -2.7400000e+00
   7.8863415e+05  -1.5786515e+05  -2.7400000e+00
   7.8863526e+05  -1.5786736e+05  -2.6400000e+00
   7.8863637e+05  -1.5786847e+05  -2.6400000e+00
   7.8863860e+05  -1.5786958e+05  -2.6400000e+00
   7.8864082e+05  -1.5787179e+05  -2.6400000e+00
   7.8864305e+05  -1.5787290e+05  -2.5400000e+00
   7.8864527e+05  -1.5787290e+05  -2.6400000e+00
   7.8864639e+05  -1.5787401e+05  -2.6400000e+00
   7.8864972e+05  -1.5787512e+05  -2.5400000e+00
   7.8865195e+05  -1.5787512e+05  -2.5400000e+00
   7.8865418e+05  -1.5787513e+05  -2.5400000e+00
   7.8865641e+05  -1.5787513e+05  -2.5400000e+00
   7.8865863e+05  -1.5787402e+05  -2.4400000e+00
   7.8866086e+05  -1.5787403e+05  -2.4400000e+00
   7.8866198e+05  -1.5787292e+05  -2.5400000e+00
   7.8866420e+05  -1.5787182e+05  -2.3400000e+00
   7.8866643e+05  -1.5787071e+05  -2.2400000e+00
   7.8866866e+05  -1.5786961e+05  -2.1400000e+00
   7.8866978e+05  -1.5786851e+05  -2.0400000e+00
   7.8867200e+05  -1.5786740e+05  -2.0400000e+00
   7.8867312e+05  -1.5786519e+05  -1.8400000e+00
   7.8867535e+05  -1.5786409e+05  -1.6400000e+00
   7.8867647e+05  -1.5786187e+05  -1.5400000e+00
   7.8867758e+05  -1.5785966e+05  -1.5400000e+00
   7.8867981e+05  -1.5785856e+05  -1.6400000e+00
   7.8868092e+05  -1.5785745e+05  -1.6400000e+00
   7.8868315e+05  -1.5785524e+05  -1.7400000e+00
   7.8868427e+05  -1.5785414e+05  -1.9400000e+00
   7.8868650e+05  -1.5785193e+05  -2.0400000e+00
   7.8868761e+05  -1.5785082e+05  -2.0400000e+00
   7.8868984e+05  -1.5784861e+05  -2.1400000e+00
   7.8869096e+05  -1.5784751e+05  -2.2400000e+00
   7.8869207e+05  -1.5784529e+05  -2.2400000e+00
   7.8869430e+05  -1.5784308e+05  -2.3400000e+00
   7.8869542e+05  -1.5784198e+05  -2.1400000e+00
   7.8869653e+05  -1.5783977e+05  -2.2400000e+00
   7.8869765e+05  -1.5783756e+05  -2.1400000e+00
   7.8869988e+05  -1.5783645e+05  -2.0400000e+00
   7.8870099e+05  -1.5783424e+05  -2.0400000e+00
   7.8870211e+05  -1.5783203e+05  -2.0400000e+00
   7.8870323e+05  -1.5782982e+05  -1.9400000e+00
   7.8870546e+05  -1.5782761e+05  -1.9400000e+00
   7.8870768e+05  -1.5782650e+05  -2.1400000e+00
   7.8870991e+05  -1.5782429e+05  -2.1400000e+00
   7.8871214e+05  -1.5782208e+05  -2.1400000e+00
   7.8871326e+05  -1.5782098e+05  -2.2400000e+00
   7.8871549e+05  -1.5781877e+05  -2.3400000e+00
   7.8871660e+05  -1.5781766e+05  -2.1400000e+00
   7.8871883e+05  -1.5781656e+05  -2.1400000e+00
   7.8872106e+05  -1.5781545e+05  -2.2400000e+00
   7.8872217e+05  -1.5781435e+05  -2.1400000e+00
   7.8872440e+05  -1.5781324e+05  -2.2400000e+00
   7.8872663e+05  -1.5781325e+05  -2.2400000e+00
   7.8872886e+05  -1.5781214e+05  -2.2400000e+00
   7.8873109e+05  -1.5781215e+05  -2.2400000e+00
   7.8873331e+05  -1.5781215e+05  -2.2400000e+00
   7.8873554e+05  -1.5781326e+05  -2.2400000e+00
   7.8873665e+05  -1.5781326e+05  -2.2400000e+00
   7.8873888e+05  -1.5781437e+05  -2.3400000e+00
   7.8874110e+05  -1.5781548e+05  -2.2400000e+00
   7.8874333e+05  -1.5781659e+05  -2.1400000e+00
   7.8874667e+05  -1.5781659e+05  -2.1400000e+00
   7.8874890e+05  -1.5781770e+05  -2.2400000e+00
   7.8875112e+05  -1.5781770e+05  -2.2400000e+00
   7.8875335e+05  -1.5781881e+05  -2.2400000e+00
   7.8875558e+05  -1.5781881e+05  -2.2400000e+00
   7.8875780e+05  -1.5781992e+05  -2.2400000e+00
   7.8876003e+05  -1.5781992e+05  -2.3400000e+00
   7.8876226e+05  -1.5781993e+05  -2.3400000e+00
   7.8876448e+05  -1.5781993e+05  -2.2400000e+00
   7.8876671e+05  -1.5781993e+05  -2.3400000e+00
   7.8876894e+05  -1.5781993e+05  -2.4400000e+00
   7.8877116e+05  -1.5781994e+05  -2.3400000e+00
   7.8877339e+05  -1.5781883e+05  -2.3400000e+00
   7.8877451e+05  -1.5781773e+05  -2.4400000e+00
   7.8877674e+05  -1.5781662e+05  -2.3400000e+00
   7.8877674e+05  -1.5781552e+05  -2.3400000e+00
   7.8877785e+05  -1.5781330e+05  -2.4400000e+00
   7.8877786e+05  -1.5781109e+05  -2.3400000e+00
   7.8877786e+05  -1.5780888e+05  -2.2400000e+00
   7.8877786e+05  -1.5780667e+05  -2.3400000e+00
   7.8877786e+05  -1.5780445e+05  -2.2400000e+00
   7.8877675e+05  -1.5780335e+05  -2.1400000e+00
   7.8877675e+05  -1.5780113e+05  -2.1400000e+00
   7.8877676e+05  -1.5779892e+05  -2.0400000e+00
   7.8877676e+05  -1.5779781e+05  -2.1400000e+00
   7.8877676e+05  -1.5779671e+05  -2.0400000e+00
   7.8877565e+05  -1.5779449e+05  -2.0400000e+00
   7.8877565e+05  -1.5779228e+05  -1.9400000e+00
   7.8877454e+05  -1.5779007e+05  -1.9400000e+00
   7.8877343e+05  -1.5778785e+05  -1.9400000e+00
   7.8877232e+05  -1.5778564e+05  -1.9400000e+00
   7.8877121e+05  -1.5778342e+05  -2.1400000e+00
   7.8876898e+05  -1.5778121e+05  -2.1400000e+00
   7.8876787e+05  -1.5777899e+05  -2.1400000e+00
   7.8876565e+05  -1.5777678e+05  -2.1400000e+00
   7.8876453e+05  -1.5777567e+05  -2.1400000e+00
   7.8876231e+05  -1.5777345e+05  -2.2400000e+00
   7.8876008e+05  -1.5777235e+05  -2.2400000e+00
   7.8875786e+05  -1.5777013e+05  -2.2400000e+00
   7.8875563e+05  -1.5776902e+05  -2.3400000e+00
   7.8875452e+05  -1.5776681e+05  -2.3400000e+00
   7.8875230e+05  -1.5776570e+05  -2.2400000e+00
   7.8875007e+05  -1.5776459e+05  -2.1400000e+00
   7.8874784e+05  -1.5776237e+05  -2.1400000e+00
   7.8874673e+05  -1.5776237e+05  -2.0400000e+00
   7.8874451e+05  -1.5776126e+05  -1.9400000e+00
   7.8874228e+05  -1.5775905e+05  -1.8400000e+00
   7.8874005e+05  -1.5775794e+05  -1.7400000e+00
   7.8873783e+05  -1.5775683e+05  -1.6400000e+00
   7.8873560e+05  -1.5775683e+05  -1.6400000e+00
   7.8873338e+05  -1.5775572e+05  -1.6400000e+00
   7.8873227e+05  -1.5775350e+05  -1.5400000e+00
   7.8873004e+05  -1.5775240e+05  -1.4400000e+00
   7.8872781e+05  -1.5775129e+05  -1.4400000e+00
   7.8872559e+05  -1.5775018e+05  -1.5400000e+00
   7.8872336e+05  -1.5774907e+05  -1.5400000e+00
   7.8872225e+05  -1.5774796e+05  -1.6400000e+00
   7.8872002e+05  -1.5774575e+05  -1.6400000e+00
   7.8871780e+05  -1.5774464e+05  -1.7400000e+00
   7.8871669e+05  -1.5774353e+05  -1.8400000e+00
   7.8871446e+05  -1.5774242e+05  -1.9400000e+00
   7.8871223e+05  -1.5774131e+05  -1.9400000e+00
   7.8871112e+05  -1.5773910e+05  -2.0400000e+00
   7.8870890e+05  -1.5773799e+05  -2.0400000e+00
   7.8870667e+05  -1.5773688e+05  -2.1400000e+00
   7.8870445e+05  -1.5773577e+05  -2.1400000e+00
   7.8870333e+05  -1.5773466e+05  -2.2400000e+00
   7.8870222e+05  -1.5773245e+05  -2.2400000e+00
   7.8870000e+05  -1.5773134e+05  -2.1400000e+00
   7.8870000e+05  -1.5772913e+05  -2.1400000e+00
   7.8869889e+05  -1.5772691e+05  -2.1400000e+00
   7.8869778e+05  -1.5772580e+05  -2.2400000e+00
   7.8869778e+05  -1.5772359e+05  -2.0400000e+00
   7.8869667e+05  -1.5772138e+05  -2.1400000e+00
   7.8869556e+05  -1.5771916e+05  -2.1400000e+00
   7.8869445e+05  -1.5771584e+05  -2.1400000e+00
   7.8869445e+05  -1.5771474e+05  -2.0400000e+00
   7.8869334e+05  -1.5771252e+05  -2.0400000e+00
   7.8869223e+05  -1.5771031e+05  -2.0400000e+00
   7.8869111e+05  -1.5770809e+05  -2.1400000e+00
   7.8869000e+05  -1.5770588e+05  -2.1400000e+00
   7.8868889e+05  -1.5770367e+05  -2.2400000e+00
   7.8868778e+05  -1.5770145e+05  -2.0400000e+00
   7.8868667e+05  -1.5769924e+05  -2.0400000e+00
   7.8868556e+05  -1.5769702e+05  -2.0400000e+00
   7.8868445e+05  -1.5769481e+05  -2.0400000e+00
   7.8868334e+05  -1.5769260e+05  -2.1400000e+00
   7.8868223e+05  -1.5769038e+05  -2.0400000e+00
   7.8868112e+05  -1.5768817e+05  -1.9400000e+00
   7.8868112e+05  -1.5768485e+05  -2.0400000e+00
   7.8868001e+05  -1.5768263e+05  -1.9400000e+00
   7.8868001e+05  -1.5768153e+05  -1.9400000e+00
   7.8867890e+05  -1.5767821e+05  -1.9400000e+00
   7.8867890e+05  -1.5767710e+05  -1.8400000e+00
   7.8867779e+05  -1.5767378e+05  -1.8400000e+00
   7.8867668e+05  -1.5767157e+05  -1.7400000e+00
   7.8867668e+05  -1.5766935e+05  -1.5400000e+00
   7.8867557e+05  -1.5766714e+05  -1.5400000e+00
   7.8867446e+05  -1.5766492e+05  -1.4400000e+00
   7.8867335e+05  -1.5766271e+05  -1.4400000e+00
   7.8867224e+05  -1.5765939e+05  -1.4400000e+00
   7.8867224e+05  -1.5765718e+05  -1.4400000e+00
   7.8867113e+05  -1.5765496e+05  -1.4400000e+00
   7.8867113e+05  -1.5765386e+05  -1.4400000e+00
   7.8867114e+05  -1.5765054e+05  -1.4400000e+00
   7.8867114e+05  -1.5764832e+05  -1.5400000e+00
   7.8867114e+05  -1.5764611e+05  -1.5400000e+00
   7.8867226e+05  -1.5764390e+05  -1.5400000e+00
   7.8867226e+05  -1.5764169e+05  -1.7400000e+00
   7.8867338e+05  -1.5763947e+05  -1.8400000e+00
   7.8867449e+05  -1.5763726e+05  -2.0400000e+00
   7.8867449e+05  -1.5763505e+05  -2.1400000e+00
   7.8867561e+05  -1.5763284e+05  -2.1400000e+00
   7.8867672e+05  -1.5763173e+05  -2.2400000e+00
   7.8867784e+05  -1.5763063e+05  -2.2400000e+00
   7.8867895e+05  -1.5762952e+05  -2.2400000e+00
   7.8868007e+05  -1.5762952e+05  -2.2400000e+00
   7.8868118e+05  -1.5763063e+05  -2.2400000e+00
   7.8868229e+05  -1.5763063e+05  -2.1400000e+00
   7.8868452e+05  -1.5763174e+05  -2.1400000e+00
   7.8868675e+05  -1.5763174e+05  -2.0400000e+00
   7.8868897e+05  -1.5763175e+05  -1.9400000e+00
   7.8869120e+05  -1.5763175e+05  -2.0400000e+00
   7.8869232e+05  -1.5763064e+05  -2.0400000e+00
   7.8869343e+05  -1.5763065e+05  -2.1400000e+00
   7.8869454e+05  -1.5762954e+05  -2.1400000e+00
   7.8869455e+05  -1.5762733e+05  -2.2400000e+00
   7.8869455e+05  -1.5762622e+05  -2.3400000e+00
   7.8869344e+05  -1.5762401e+05  -2.3400000e+00
   7.8869232e+05  -1.5762290e+05  -2.3400000e+00
   7.8869121e+05  -1.5762179e+05  -2.3400000e+00
   7.8869010e+05  -1.5761958e+05  -2.4400000e+00
   7.8868787e+05  -1.5761847e+05  -2.6400000e+00
   7.8868676e+05  -1.5761736e+05  -2.4400000e+00
   7.8868454e+05  -1.5761625e+05  -2.4400000e+00
   7.8868231e+05  -1.5761404e+05  -2.4400000e+00
   7.8868009e+05  -1.5761293e+05  -2.5400000e+00
   7.8867897e+05  -1.5761182e+05  -2.5400000e+00
   7.8867786e+05  -1.5761071e+05  -2.5400000e+00
   7.8867563e+05  -1.5761071e+05  -2.5400000e+00
   7.8867341e+05  -1.5760960e+05  -2.6400000e+00
   7.8867118e+05  -1.5760960e+05  -2.7400000e+00
   7.8866895e+05  -1.5760960e+05  -2.7400000e+00
   7.8866673e+05  -1.5760959e+05  -2.7400000e+00
   7.8866450e+05  -1.5761070e+05  -2.7400000e+00
   7.8866227e+05  -1.5761069e+05  -2.7400000e+00
   7.8866004e+05  -1.5761180e+05  -2.8400000e+00
   7.8865782e+05  -1.5761180e+05  -2.9400000e+00
   7.8865447e+05  -1.5761290e+05  -2.8400000e+00
   7.8865336e+05  -1.5761400e+05  -2.8400000e+00
   7.8865002e+05  -1.5761400e+05  -2.8400000e+00
   7.8864779e+05  -1.5761510e+05  -2.8400000e+00
   7.8864556e+05  -1.5761510e+05  -2.8400000e+00
   7.8864334e+05  -1.5761510e+05  -2.8400000e+00
   7.8864111e+05  -1.5761620e+05  -2.8400000e+00
   7.8863888e+05  -1.5761620e+05  -2.9400000e+00
   7.8863665e+05  -1.5761730e+05  -2.9400000e+00
   7.8863443e+05  -1.5761730e+05  -2.8400000e+00
   7.8863220e+05  -1.5761730e+05  -2.9400000e+00
   7.8862886e+05  -1.5761730e+05  -2.9400000e+00
   7.8862663e+05  -1.5761840e+05  -2.9400000e+00
   7.8862440e+05  -1.5761840e+05  -2.9400000e+00
   7.8862218e+05  -1.5761839e+05  -2.8400000e+00
   7.8861995e+05  -1.5761839e+05  -2.9400000e+00
   7.8861772e+05  -1.5761839e+05  -2.8400000e+00
   7.8861549e+05  -1.5761839e+05  -2.8400000e+00
   7.8861327e+05  -1.5761838e+05  -2.8400000e+00
   7.8861104e+05  -1.5761838e+05  -2.8400000e+00
   7.8860770e+05  -1.5761838e+05  -2.8400000e+00
   7.8860547e+05  -1.5761948e+05  -2.8400000e+00
   7.8860324e+05  -1.5761948e+05  -2.8400000e+00
   7.8860102e+05  -1.5761948e+05  -2.7400000e+00
   7.8859879e+05  -1.5761837e+05  -2.8400000e+00
   7.8859656e+05  -1.5761837e+05  -2.7400000e+00
   7.8859434e+05  -1.5761836e+05  -2.7400000e+00
   7.8859211e+05  -1.5761836e+05  -2.9400000e+00
   7.8858988e+05  -1.5761836e+05  -2.8400000e+00
   7.8858654e+05  -1.5761835e+05  -2.7400000e+00
   7.8858431e+05  -1.5761835e+05  -2.8400000e+00
   7.8858209e+05  -1.5761835e+05  -2.8400000e+00
   7.8857986e+05  -1.5761835e+05  -2.8400000e+00
   7.8857763e+05  -1.5761834e+05  -2.8400000e+00
   7.8857541e+05  -1.5761834e+05  -3.1400000e+00
   7.8857318e+05  -1.5761834e+05  -3.1400000e+00
   7.8857095e+05  -1.5761834e+05  -3.1400000e+00
   7.8856872e+05  -1.5761944e+05  -2.7400000e+00
   7.8856650e+05  -1.5761944e+05  -2.7400000e+00
   7.8856427e+05  -1.5761944e+05  -2.7400000e+00
   7.8856093e+05  -1.5761943e+05  -3.0400000e+00
   7.8855870e+05  -1.5761943e+05  -3.1400000e+00
   7.8855647e+05  -1.5762053e+05  -2.8400000e+00
   7.8855425e+05  -1.5762053e+05  -2.7400000e+00
   7.8855202e+05  -1.5762163e+05  -2.8400000e+00
   7.8854979e+05  -1.5762163e+05  -2.8400000e+00
   7.8854756e+05  -1.5762163e+05  -3.0400000e+00
   7.8854533e+05  -1.5762273e+05  -3.1400000e+00
   7.8854311e+05  -1.5762384e+05  -2.7400000e+00
   7.8854088e+05  -1.5762383e+05  -2.7400000e+00
   7.8853865e+05  -1.5762494e+05  -2.8400000e+00
   7.8853642e+05  -1.5762494e+05  -2.8400000e+00
   7.8853420e+05  -1.5762604e+05  -2.8400000e+00
   7.8853197e+05  -1.5762604e+05  -2.8400000e+00
   7.8852974e+05  -1.5762714e+05  -2.7400000e+00
   7.8852751e+05  -1.5762714e+05  -2.8400000e+00
   7.8852529e+05  -1.5762714e+05  -2.7400000e+00
   7.8852306e+05  -1.5762824e+05  -2.8400000e+00
   7.8852083e+05  -1.5762824e+05  -2.9400000e+00
   7.8851860e+05  -1.5762934e+05  -2.7400000e+00
   7.8851638e+05  -1.5762934e+05  -2.9400000e+00
   7.8851415e+05  -1.5763044e+05  -3.1400000e+00
   7.8851192e+05  -1.5763044e+05  -2.8400000e+00
   7.8850969e+05  -1.5763044e+05  -2.8400000e+00
   7.8850747e+05  -1.5763044e+05  -2.7400000e+00
   7.8850524e+05  -1.5763154e+05  -3.0400000e+00
   7.8850301e+05  -1.5763154e+05  -3.0400000e+00
   7.8850078e+05  -1.5763153e+05  -2.8400000e+00
   7.8849856e+05  -1.5763153e+05  -3.1400000e+00
   7.8849633e+05  -1.5763153e+05  -2.8400000e+00
   7.8849410e+05  -1.5763153e+05  -3.2400000e+00
   7.8849187e+05  -1.5763152e+05  -3.0400000e+00
   7.8848853e+05  -1.5763152e+05  -2.8400000e+00
   7.8848742e+05  -1.5763152e+05  -2.9400000e+00
   7.8848519e+05  -1.5763152e+05  -3.1400000e+00
   7.8848185e+05  -1.5763151e+05  -3.0400000e+00
   7.8847962e+05  -1.5763262e+05  -3.1400000e+00
   7.8847740e+05  -1.5763261e+05  -2.9400000e+00
   7.8847517e+05  -1.5763261e+05  -3.0400000e+00
   7.8847294e+05  -1.5763261e+05  -2.9400000e+00
   7.8847072e+05  -1.5763261e+05  -2.8400000e+00
   7.8846849e+05  -1.5763260e+05  -2.8400000e+00
   7.8846626e+05  -1.5763260e+05  -2.8400000e+00
   7.8846403e+05  -1.5763371e+05  -2.7400000e+00
   7.8846181e+05  -1.5763370e+05  -3.0400000e+00
   7.8845958e+05  -1.5763370e+05  -3.1400000e+00
   7.8845624e+05  -1.5763370e+05  -2.8400000e+00
   7.8845401e+05  -1.5763480e+05  -3.2400000e+00
   7.8845178e+05  -1.5763480e+05  -3.0400000e+00
   7.8844956e+05  -1.5763480e+05  -2.8400000e+00
   7.8844733e+05  -1.5763590e+05  -3.0400000e+00
   7.8844510e+05  -1.5763590e+05  -2.8400000e+00
   7.8844287e+05  -1.5763700e+05  -2.9400000e+00
   7.8844064e+05  -1.5763811e+05  -2.8400000e+00
   7.8843953e+05  -1.5763810e+05  -3.0400000e+00
   7.8843730e+05  -1.5763921e+05  -2.9400000e+00
   7.8843507e+05  -1.5764031e+05  -2.8400000e+00
   7.8843284e+05  -1.5764142e+05  -2.9400000e+00
   7.8843062e+05  -1.5764252e+05  -2.9400000e+00
   7.8842950e+05  -1.5764252e+05  -2.9400000e+00
   7.8842727e+05  -1.5764362e+05  -3.1400000e+00
   7.8842505e+05  -1.5764473e+05  -2.8400000e+00
   7.8842282e+05  -1.5764583e+05  -3.1400000e+00
   7.8842059e+05  -1.5764693e+05  -3.2400000e+00
   7.8841836e+05  -1.5764804e+05  -3.2400000e+00
   7.8841613e+05  -1.5764914e+05  -2.7400000e+00
   7.8841502e+05  -1.5765025e+05  -2.9400000e+00
   7.8841279e+05  -1.5765135e+05  -2.9400000e+00
   7.8841056e+05  -1.5765135e+05  -3.3400000e+00
   7.8840722e+05  -1.5765245e+05  -2.9400000e+00
   7.8840499e+05  -1.5765356e+05  -2.9400000e+00
   7.8840276e+05  -1.5765466e+05  -3.2400000e+00
   7.8840054e+05  -1.5765466e+05  -2.9400000e+00
   7.8839831e+05  -1.5765576e+05  -2.8400000e+00
   7.8839608e+05  -1.5765687e+05  -2.8400000e+00
   7.8839385e+05  -1.5765686e+05  -2.8400000e+00
   7.8839163e+05  -1.5765686e+05  -2.8400000e+00
   7.8838940e+05  -1.5765796e+05  -2.8400000e+00
   7.8838717e+05  -1.5765796e+05  -2.8400000e+00
   7.8836378e+05  -1.5765904e+05  -2.9400000e+00
   7.8836156e+05  -1.5765793e+05  -2.9400000e+00
   7.8835933e+05  -1.5765793e+05  -2.9400000e+00
   7.8835710e+05  -1.5765793e+05  -2.9400000e+00
   7.8835488e+05  -1.5765793e+05  -2.9400000e+00
   7.8835154e+05  -1.5765792e+05  -2.9400000e+00
   7.8834040e+05  -1.5765680e+05  -3.0400000e+00
   7.8833818e+05  -1.5765680e+05  -2.9400000e+00
   7.8833595e+05  -1.5765680e+05  -2.9400000e+00
   7.8833372e+05  -1.5765680e+05  -2.9400000e+00
   7.8833149e+05  -1.5765679e+05  -2.9400000e+00
   7.8832927e+05  -1.5765679e+05  -2.9400000e+00
   7.8832704e+05  -1.5765679e+05  -2.9400000e+00
   7.8832370e+05  -1.5765678e+05  -2.9400000e+00
   7.8832147e+05  -1.5765678e+05  -2.9400000e+00
   7.8830031e+05  -1.5766118e+05  -2.9400000e+00
   7.8829920e+05  -1.5766118e+05  -2.9400000e+00
   7.8829586e+05  -1.5766118e+05  -2.9400000e+00
   7.8829363e+05  -1.5766228e+05  -2.9400000e+00
   7.8829140e+05  -1.5766228e+05  -2.9400000e+00
   7.8828917e+05  -1.5766228e+05  -2.9400000e+00
   7.8828694e+05  -1.5766338e+05  -2.9400000e+00
   7.8827024e+05  -1.5766558e+05  -2.9400000e+00
   7.8826913e+05  -1.5766557e+05  -2.9400000e+00
   7.8826690e+05  -1.5766668e+05  -2.9400000e+00
   7.8826467e+05  -1.5766668e+05  -2.9400000e+00
   7.8826244e+05  -1.5766667e+05  -2.9400000e+00
   7.8826021e+05  -1.5766778e+05  -2.9400000e+00
   7.8825687e+05  -1.5766777e+05  -2.9400000e+00
   7.8823683e+05  -1.5767107e+05  -2.9400000e+00
   7.8823460e+05  -1.5767107e+05  -2.8400000e+00
   7.8823237e+05  -1.5767106e+05  -2.9400000e+00
   7.8823014e+05  -1.5767217e+05  -2.9400000e+00
   7.8822792e+05  -1.5767217e+05  -2.9400000e+00
   7.8822457e+05  -1.5767327e+05  -2.9400000e+00
   7.8822235e+05  -1.5767327e+05  -2.9400000e+00
   7.8819562e+05  -1.5767877e+05  -2.8400000e+00
   7.8819339e+05  -1.5767987e+05  -2.9400000e+00
   7.8819116e+05  -1.5767987e+05  -2.9400000e+00
   7.8818893e+05  -1.5768097e+05  -2.9400000e+00
   7.8818670e+05  -1.5768097e+05  -2.9400000e+00
   7.8818448e+05  -1.5768208e+05  -2.9400000e+00
   7.8773448e+05  -1.5779332e+05  -2.8400000e+00
   7.8773114e+05  -1.5779332e+05  -2.8400000e+00
   7.8772891e+05  -1.5779331e+05  -2.9400000e+00
   7.8772668e+05  -1.5779442e+05  -2.9400000e+00
   7.8772445e+05  -1.5779442e+05  -2.9400000e+00
   7.8772223e+05  -1.5779441e+05  -2.9400000e+00
   7.8772000e+05  -1.5779441e+05  -2.9400000e+00
   7.8771777e+05  -1.5779441e+05  -2.9400000e+00
   7.8771554e+05  -1.5779551e+05  -2.9400000e+00
   7.8769661e+05  -1.5779660e+05  -2.9400000e+00
   7.8769327e+05  -1.5779659e+05  -2.9400000e+00
   7.8769104e+05  -1.5779659e+05  -2.9400000e+00
   7.8768882e+05  -1.5779659e+05  -2.9400000e+00
   7.8768659e+05  -1.5779769e+05  -2.9400000e+00
   7.8768436e+05  -1.5779769e+05  -2.9400000e+00
   7.8768214e+05  -1.5779769e+05  -2.9400000e+00
   7.8766320e+05  -1.5779988e+05  -3.0400000e+00
   7.8766098e+05  -1.5779988e+05  -3.0400000e+00
   7.8765875e+05  -1.5780098e+05  -3.0400000e+00
   7.8765652e+05  -1.5780098e+05  -3.1400000e+00
   7.8765429e+05  -1.5780098e+05  -3.0400000e+00
   7.8765206e+05  -1.5780208e+05  -3.0400000e+00
   7.8764984e+05  -1.5780208e+05  -3.1400000e+00
   7.8764761e+05  -1.5780207e+05  -3.0400000e+00
   7.8764538e+05  -1.5780207e+05  -3.1400000e+00
   7.8764316e+05  -1.5780207e+05  -3.1400000e+00
   7.8764093e+05  -1.5780317e+05  -3.1400000e+00
   7.8763759e+05  -1.5780317e+05  -3.3400000e+00
   7.8763536e+05  -1.5780317e+05  -3.2400000e+00
   7.8763425e+05  -1.5780317e+05  -3.0400000e+00
   7.8763091e+05  -1.5780316e+05  -3.0400000e+00
   7.8762868e+05  -1.5780316e+05  -3.0400000e+00
   7.8762645e+05  -1.5780316e+05  -3.2400000e+00
   7.8762422e+05  -1.5780315e+05  -3.1400000e+00
   7.8762200e+05  -1.5780315e+05  -3.1400000e+00
   7.8761977e+05  -1.5780426e+05  -3.1400000e+00
   7.8761643e+05  -1.5780425e+05  -3.1400000e+00
   7.8761532e+05  -1.5780425e+05  -3.1400000e+00
   7.8761309e+05  -1.5780425e+05  -3.0400000e+00
   7.8760975e+05  -1.5780535e+05  -3.0400000e+00
   7.8760752e+05  -1.5780535e+05  -3.0400000e+00
   7.8760529e+05  -1.5780535e+05  -3.1400000e+00
   7.8760306e+05  -1.5780534e+05  -3.1400000e+00
   7.8760084e+05  -1.5780645e+05  -3.1400000e+00
   7.8759861e+05  -1.5780644e+05  -3.1400000e+00
   7.8759638e+05  -1.5780755e+05  -3.1400000e+00
   7.8759415e+05  -1.5780755e+05  -3.1400000e+00
   7.8759193e+05  -1.5780865e+05  -2.9400000e+00
   7.8758970e+05  -1.5780865e+05  -3.0400000e+00
   7.8758747e+05  -1.5780865e+05  -3.0400000e+00
   7.8758524e+05  -1.5780975e+05  -3.0400000e+00
   7.8758302e+05  -1.5780975e+05  -3.1400000e+00
   7.8758079e+05  -1.5781085e+05  -3.1400000e+00
   7.8757856e+05  -1.5781085e+05  -3.0400000e+00
   7.8757522e+05  -1.5781084e+05  -3.1400000e+00
   7.8757411e+05  -1.5781195e+05  -3.1400000e+00
   7.8757076e+05  -1.5781195e+05  -3.1400000e+00
   7.8756854e+05  -1.5781305e+05  -3.0400000e+00
   7.8756631e+05  -1.5781305e+05  -3.1400000e+00
   7.8756408e+05  -1.5781304e+05  -3.4400000e+00
   7.8756185e+05  -1.5781415e+05  -3.3400000e+00
   7.8755963e+05  -1.5781415e+05  -3.2400000e+00
   7.8755628e+05  -1.5781525e+05  -3.1400000e+00
   7.8755406e+05  -1.5781525e+05  -3.1400000e+00
   7.8755183e+05  -1.5781524e+05  -3.1400000e+00
   7.8754960e+05  -1.5781635e+05  -3.1400000e+00
   7.8754738e+05  -1.5781635e+05  -3.1400000e+00
   7.8754515e+05  -1.5781634e+05  -3.0400000e+00
   7.8754292e+05  -1.5781745e+05  -3.1400000e+00
   7.8754069e+05  -1.5781744e+05  -3.1400000e+00
   7.8753847e+05  -1.5781744e+05  -3.1400000e+00
   7.8753512e+05  -1.5781854e+05  -3.2400000e+00
   7.8753401e+05  -1.5781854e+05  -3.1400000e+00
   7.8753067e+05  -1.5781854e+05  -3.2400000e+00
   7.8752844e+05  -1.5781964e+05  -3.1400000e+00
   7.8752621e+05  -1.5781964e+05  -3.1400000e+00
   7.8752399e+05  -1.5781964e+05  -3.2400000e+00
   7.8752176e+05  -1.5782074e+05  -3.2400000e+00
   7.8751953e+05  -1.5782074e+05  -3.2400000e+00
   7.8751730e+05  -1.5782184e+05  -3.2400000e+00
   7.8751396e+05  -1.5782184e+05  -3.2400000e+00
   7.8751173e+05  -1.5782294e+05  -3.1400000e+00
   7.8750951e+05  -1.5782294e+05  -3.3400000e+00
   7.8750728e+05  -1.5782294e+05  -3.3400000e+00
   7.8750505e+05  -1.5782404e+05  -3.2400000e+00
   7.8750282e+05  -1.5782404e+05  -3.3400000e+00
   7.8749948e+05  -1.5782404e+05  -3.7400000e+00
   7.8749837e+05  -1.5782514e+05  -3.3400000e+00
   7.8749614e+05  -1.5782514e+05  -3.2400000e+00
   7.8749280e+05  -1.5782514e+05  -3.2400000e+00
   7.8749057e+05  -1.5782624e+05  -3.2400000e+00
   7.8748835e+05  -1.5782624e+05  -3.3400000e+00
   7.8748612e+05  -1.5782623e+05  -3.3400000e+00
   7.8748389e+05  -1.5782623e+05  -3.3400000e+00
   7.8748166e+05  -1.5782623e+05  -3.3400000e+00
   7.8747944e+05  -1.5782733e+05  -3.3400000e+00
   7.8747610e+05  -1.5782733e+05  -3.2400000e+00
   7.8747387e+05  -1.5782733e+05  -3.3400000e+00
   7.8747276e+05  -1.5782733e+05  -3.3400000e+00
   7.8746941e+05  -1.5782732e+05  -3.3400000e+00
   7.8746719e+05  -1.5782732e+05  -3.3400000e+00
   7.8746496e+05  -1.5782842e+05  -3.3400000e+00
   7.8746273e+05  -1.5782842e+05  -3.3400000e+00
   7.8746050e+05  -1.5782842e+05  -3.3400000e+00
   7.8745828e+05  -1.5782842e+05  -3.3400000e+00
   7.8745494e+05  -1.5782841e+05  -3.3400000e+00
   7.8745382e+05  -1.5782841e+05  -3.3400000e+00
   7.8745160e+05  -1.5782841e+05  -3.3400000e+00
   7.8744937e+05  -1.5782951e+05  -3.3400000e+00
   7.8744603e+05  -1.5782951e+05  -3.3400000e+00
   7.8744380e+05  -1.5782951e+05  -3.3400000e+00
   7.8744157e+05  -1.5782950e+05  -3.2400000e+00
   7.8743935e+05  -1.5783061e+05  -3.3400000e+00
   7.8743712e+05  -1.5783061e+05  -3.3400000e+00
   7.8743489e+05  -1.5783171e+05  -3.8400000e+00
   7.8743266e+05  -1.5783281e+05  -3.3400000e+00
   7.8743043e+05  -1.5783281e+05  -3.2400000e+00
   7.8742821e+05  -1.5783391e+05  -3.3400000e+00
   7.8742598e+05  -1.5783391e+05  -3.6400000e+00
   7.8742375e+05  -1.5783502e+05  -3.3400000e+00
   7.8742152e+05  -1.5783501e+05  -3.3400000e+00
   7.8741930e+05  -1.5783501e+05  -3.3400000e+00
   7.8741595e+05  -1.5783611e+05  -3.3400000e+00
   7.8741373e+05  -1.5783611e+05  -3.3400000e+00
   7.8741150e+05  -1.5783721e+05  -3.3400000e+00
   7.8740927e+05  -1.5783721e+05  -3.2400000e+00
   7.8740704e+05  -1.5783832e+05  -3.6400000e+00
   7.8740482e+05  -1.5783831e+05  -3.3400000e+00
   7.8740259e+05  -1.5783831e+05  -3.8400000e+00
   7.8740036e+05  -1.5783942e+05  -3.5400000e+00
   7.8739813e+05  -1.5783941e+05  -3.3400000e+00
   7.8739591e+05  -1.5783941e+05  -3.4400000e+00
   7.8739257e+05  -1.5783941e+05  -3.4400000e+00
   7.8739034e+05  -1.5784051e+05  -3.3400000e+00
   7.8738811e+05  -1.5784051e+05  -3.7400000e+00
   7.8738588e+05  -1.5784051e+05  -3.3400000e+00
   7.8738366e+05  -1.5784161e+05  -3.5400000e+00
   7.8738143e+05  -1.5784161e+05  -3.3400000e+00
   7.8737920e+05  -1.5784271e+05  -3.3400000e+00
   7.8737697e+05  -1.5784271e+05  -3.3400000e+00
   7.8737475e+05  -1.5784271e+05  -3.3400000e+00
   7.8737252e+05  -1.5784270e+05  -3.4400000e+00
   7.8736918e+05  -1.5784381e+05  -3.3400000e+00
   7.8736695e+05  -1.5784380e+05  -3.3400000e+00
   7.8736472e+05  -1.5784380e+05  -3.6400000e+00
   7.8736250e+05  -1.5784380e+05  -3.4400000e+00
   7.8736027e+05  -1.5784380e+05  -3.3400000e+00
   7.8735693e+05  -1.5784379e+05  -3.4400000e+00
   7.8735470e+05  -1.5784379e+05  -3.3400000e+00
   7.8735247e+05  -1.5784489e+05  -3.3400000e+00
   7.8734913e+05  -1.5784489e+05  -3.3400000e+00
   7.8734690e+05  -1.5784489e+05  -3.2400000e+00
   7.8734468e+05  -1.5784488e+05  -3.1400000e+00
   7.8734245e+05  -1.5784599e+05  -3.0400000e+00
   7.8734022e+05  -1.5784599e+05  -3.1400000e+00
   7.8733911e+05  -1.5784709e+05  -2.8400000e+00
   7.8733688e+05  -1.5784709e+05  -2.9400000e+00
   7.8733465e+05  -1.5784819e+05  -2.9400000e+00
   7.8733242e+05  -1.5784819e+05  -2.9400000e+00
   7.8733020e+05  -1.5784819e+05  -2.9400000e+00
   7.8732797e+05  -1.5784929e+05  -2.8400000e+00
   7.8732574e+05  -1.5784929e+05  -2.8400000e+00
   7.8732351e+05  -1.5785039e+05  -2.8400000e+00
   7.8732129e+05  -1.5785039e+05  -2.8400000e+00
   7.8731906e+05  -1.5785149e+05  -2.8400000e+00
   7.8731126e+05  -1.5785370e+05  -2.5400000e+00
   7.8730903e+05  -1.5785480e+05  -2.4400000e+00
   7.8730681e+05  -1.5785480e+05  -2.4400000e+00
   7.8730458e+05  -1.5785590e+05  -2.3400000e+00
   7.8730235e+05  -1.5785590e+05  -2.3400000e+00
   7.8730012e+05  -1.5785701e+05  -2.3400000e+00
   7.8729789e+05  -1.5785811e+05  -2.2400000e+00
   7.8729567e+05  -1.5785811e+05  -2.2400000e+00
   7.8729344e+05  -1.5785921e+05  -2.2400000e+00
   7.8729121e+05  -1.5785921e+05  -2.2400000e+00
   7.8728898e+05  -1.5786031e+05  -2.2400000e+00
   7.8728676e+05  -1.5786031e+05  -2.1400000e+00
   7.8728453e+05  -1.5786141e+05  -2.1400000e+00
   7.8728119e+05  -1.5786141e+05  -2.1400000e+00
   7.8727896e+05  -1.5786141e+05  -2.0400000e+00
   7.8727673e+05  -1.5786141e+05  -2.0400000e+00
   7.8727451e+05  -1.5786140e+05  -1.9400000e+00
   7.8727228e+05  -1.5786140e+05  -1.9400000e+00
   7.8727117e+05  -1.5786140e+05  -1.8400000e+00
   7.8726894e+05  -1.5786029e+05  -1.7400000e+00
   7.8726783e+05  -1.5785918e+05  -1.6400000e+00
   7.8726560e+05  -1.5785697e+05  -1.6400000e+00
   7.8726449e+05  -1.5785586e+05  -1.5400000e+00
   7.8726449e+05  -1.5785365e+05  -1.5400000e+00
   7.8726338e+05  -1.5785254e+05  -1.5400000e+00
   7.8726338e+05  -1.5784922e+05  -1.6400000e+00
   7.8726450e+05  -1.5784701e+05  -1.5400000e+00
   7.8726450e+05  -1.5784479e+05  -1.6400000e+00
   7.8726339e+05  -1.5784258e+05  -1.6400000e+00
   7.8726339e+05  -1.5784037e+05  -1.6400000e+00
   7.8726451e+05  -1.5783816e+05  -1.7400000e+00
   7.8726451e+05  -1.5783594e+05  -1.7400000e+00
   7.8726451e+05  -1.5783373e+05  -1.7400000e+00
   7.8726452e+05  -1.5783152e+05  -1.7400000e+00
   7.8726452e+05  -1.5782820e+05  -1.8400000e+00
